# .PCD v0.7 - Point Cloud Data file format
VERSION 0.7
FIELDS x y z
SIZE 4 4 4
TYPE F F F
COUNT 1 1 1
WIDTH 1445
HEIGHT 1
VIEWPOINT 0 0 0 1 0 0 0
POINTS 1445
DATA ascii
0.23688829 0.24926725 0.648
0.23801364 0.24926725 0.648
0.23913901 0.24926725 0.648
0.24026437 0.24926725 0.648
0.24101721 0.24888258 0.64700001
0.24214083 0.24888258 0.64700001
-0.42422512 0.37983939 0.98300004
-0.42251799 0.37983939 0.98300004
-0.41952658 0.37868017 0.98000002
-0.41782466 0.37868017 0.98000002
-0.41484886 0.37752095 0.97700006
-0.41315216 0.37752095 0.97700006
-0.41145542 0.37752095 0.97700006
-0.40850049 0.37636173 0.97400004
-0.40680897 0.37636173 0.97400004
-0.40511745 0.37636173 0.97400004
-0.40342593 0.37636173 0.97400004
-0.4029718 0.37752095 0.97700006
-0.40127507 0.37752095 0.97700006
-0.40080532 0.37868017 0.98000002
-0.39788163 0.37752095 0.97700006
-0.39618492 0.37752095 0.97700006
-0.39448819 0.37752095 0.97700006
-0.39279145 0.37752095 0.97700006
-0.39109474 0.37752095 0.97700006
-0.38820231 0.37636173 0.97400004
-0.38651082 0.37636173 0.97400004
-0.38600457 0.37752095 0.97700006
-0.38430783 0.37752095 0.97700006
-0.38261113 0.37752095 0.97700006
-0.38091439 0.37752095 0.97700006
-0.37727696 0.37558892 0.97200006
-0.37558892 0.37558892 0.97200006
-0.37390086 0.37558892 0.97200006
-0.37221283 0.37558892 0.97200006
-0.3712872 0.37636173 0.97400004
-0.36883676 0.37558892 0.97200006
-0.3671487 0.37558892 0.97200006
-0.36546066 0.37558892 0.97200006
-0.36452115 0.37636173 0.97400004
-0.3620846 0.37558892 0.97200006
-0.36039656 0.37558892 0.97200006
-0.35760137 0.37442967 0.96900004
-0.35702047 0.37558892 0.97200006
-0.35533243 0.37558892 0.97200006
-0.35255289 0.37442967 0.96900004
-0.34978378 0.37327045 0.96600002
-0.3470251 0.37211123 0.96300006
-0.34463543 0.37133843 0.96100003
-0.34189585 0.37017921 0.95800006
-0.3402321 0.37017921 0.95800006
-0.33856839 0.37017921 0.95800006
-0.33690467 0.37017921 0.95800006
-0.33629075 0.37133843 0.96100003
-0.33357722 0.37017921 0.95800006
0.20961133 0.25696155 0.66500002
0.21013233 0.25618872 0.66300005
0.21128374 0.25618872 0.66300005
0.21211474 0.25580233 0.66200006
0.21358655 0.25618872 0.66300005
0.21441409 0.25580233 0.66200006
0.21556376 0.25580233 0.66200006
0.21671343 0.25580233 0.66200006
0.21753401 0.25541592 0.66100001
0.21868195 0.25541592 0.66100001
0.21949731 0.2550295 0.66000003
0.22064351 0.2550295 0.66000003
0.22111762 0.2542567 0.65800005
0.22226034 0.2542567 0.65800005
0.22306356 0.25387028 0.65700001
0.22386329 0.25348386 0.65600002
0.22465955 0.25309747 0.65500003
0.22579707 0.25309747 0.65500003
0.22624165 0.25232464 0.65300006
0.2273757 0.25232464 0.65300006
0.2281598 0.25193825 0.65200001
0.22929211 0.25193825 0.65200001
0.23042442 0.25193825 0.65200001
0.23155671 0.25193825 0.65200001
0.23233214 0.25155184 0.65100002
0.23346271 0.25155184 0.65100002
0.23459329 0.25155184 0.65100002
0.23536175 0.25116542 0.65000004
0.23649059 0.25116542 0.65000004
0.23688829 0.25039262 0.648
0.23764634 0.2500062 0.64700001
0.23913901 0.25039262 0.648
0.24026437 0.25039262 0.648
0.24101721 0.2500062 0.64700001
0.24214083 0.2500062 0.64700001
-0.42463237 0.38038212 0.98000002
-0.42293045 0.38038212 0.98000002
-0.4212285 0.38038212 0.98000002
-0.41952658 0.38038212 0.98000002
-0.4165456 0.37921768 0.97700006
-0.41484886 0.37921768 0.97700006
-0.41315216 0.37921768 0.97700006
-0.41145542 0.37921768 0.97700006
-0.40850049 0.37805325 0.97400004
-0.40680897 0.37805325 0.97400004
-0.40511745 0.37805325 0.97400004
-0.40466854 0.37921768 0.97700006
-0.4029718 0.37921768 0.97700006
-0.40127507 0.37921768 0.97700006
-0.39957836 0.37921768 0.97700006
-0.39788163 0.37921768 0.97700006
-0.39618492 0.37921768 0.97700006
-0.39448819 0.37921768 0.97700006
-0.39279145 0.37921768 0.97700006
-0.39109474 0.37921768 0.97700006
-0.38820231 0.37805325 0.97400004
-0.38651082 0.37805325 0.97400004
-0.3848193 0.37805325 0.97400004
-0.38430783 0.37921768 0.97700006
-0.38261113 0.37921768 0.97700006
-0.37974477 0.37805325 0.97400004
-0.37805325 0.37805325 0.97400004
-0.37636173 0.37805325 0.97400004
-0.37467021 0.37805325 0.97400004
-0.37297869 0.37805325 0.97400004
-0.37052479 0.37727696 0.97200006
-0.36883676 0.37727696 0.97200006
-0.3671487 0.37727696 0.97200006
-0.36546066 0.37727696 0.97200006
-0.36452115 0.37805325 0.97400004
-0.3620846 0.37727696 0.97200006
-0.36039656 0.37727696 0.97200006
-0.35760137 0.37611252 0.96900004
-0.35591856 0.37611252 0.96900004
-0.35423574 0.37611252 0.96900004
-0.35255289 0.37611252 0.96900004
-0.34797332 0.37300736 0.96100003
-0.34522331 0.37184292 0.95800006
-0.34355956 0.37184292 0.95800006
-0.34189585 0.37184292 0.95800006
-0.33916667 0.37067848 0.95500004
-0.33750814 0.37067848 0.95500004
-0.33690467 0.37184292 0.95800006
-0.33524093 0.37184292 0.95800006
-0.33253261 0.37067848 0.95500004
0.20898092 0.25734013 0.66300005
0.21013233 0.25734013 0.66300005
0.21128374 0.25734013 0.66300005
0.21211474 0.25695199 0.66200006
0.21326441 0.25695199 0.66200006
0.21441409 0.25695199 0.66200006
0.21556376 0.25695199 0.66200006
0.21671343 0.25695199 0.66200006
0.21753401 0.25656384 0.66100001
0.21868195 0.25656384 0.66100001
0.21949731 0.2561757 0.66000003
0.22064351 0.2561757 0.66000003
0.22111762 0.25539941 0.65800005
0.22226034 0.25539941 0.65800005
0.22306356 0.25501126 0.65700001
0.22386329 0.25462312 0.65600002
0.22465955 0.25423497 0.65500003
0.22510761 0.25345868 0.65300006
0.22624165 0.25345868 0.65300006
0.22702749 0.25307053 0.65200001
0.2281598 0.25307053 0.65200001
0.22929211 0.25307053 0.65200001
0.23007101 0.25268239 0.65100002
0.23120157 0.25268239 0.65100002
0.23233214 0.25268239 0.65100002
0.23310409 0.25229427 0.65000004
0.23423292 0.25229427 0.65000004
0.23536175 0.25229427 0.65000004
0.23649059 0.25229427 0.65000004
0.23688829 0.25151798 0.648
0.23764634 0.25112984 0.64700001
0.23876996 0.25112984 0.64700001
0.23989359 0.25112984 0.64700001
0.24101721 0.25112984 0.64700001
0.24214083 0.25112984 0.64700001
-0.42973819 0.38208404 0.98000002
-0.42803624 0.38208404 0.98000002
-0.42633432 0.38208404 0.98000002
-0.42463237 0.38208404 0.98000002
-0.42293045 0.38208404 0.98000002
-0.42251799 0.38325369 0.98300004
-0.42081085 0.38325369 0.98300004
-0.41782466 0.38208404 0.98000002
-0.4161227 0.38208404 0.98000002
-0.41315216 0.38091439 0.97700006
-0.41145542 0.38091439 0.97700006
-0.40850049 0.37974477 0.97400004
-0.40680897 0.37974477 0.97400004
-0.40511745 0.37974477 0.97400004
-0.40342593 0.37974477 0.97400004
-0.40173444 0.37974477 0.97400004
-0.40127507 0.38091439 0.97700006
-0.39957836 0.38091439 0.97700006
-0.39665988 0.37974477 0.97400004
-0.39618492 0.38091439 0.97700006
-0.39327687 0.37974477 0.97400004
-0.39158535 0.37974477 0.97400004
-0.38989383 0.37974477 0.97400004
-0.38740519 0.37896499 0.97200006
-0.38571715 0.37896499 0.97200006
-0.3848193 0.37974477 0.97400004
-0.38312778 0.37974477 0.97400004
-0.38143626 0.37974477 0.97400004
-0.37974477 0.37974477 0.97400004
-0.37805325 0.37974477 0.97400004
-0.37636173 0.37974477 0.97400004
-0.37390086 0.37896499 0.97200006
-0.37221283 0.37896499 0.97200006
-0.37052479 0.37896499 0.97200006
-0.36883676 0.37896499 0.97200006
-0.36601552 0.37779534 0.96900004
-0.36546066 0.37896499 0.97200006
-0.36377263 0.37896499 0.97200006
-0.36096704 0.37779534 0.96900004
-0.35928422 0.37779534 0.96900004
-0.35649425 0.37662569 0.96600002
-0.35591856 0.37779534 0.96900004
-0.35313901 0.37662569 0.96600002
-0.35146141 0.37662569 0.96600002
-0.34797332 0.37467629 0.96100003
-0.34522331 0.37350664 0.95800006
-0.34355956 0.37350664 0.95800006
-0.34082517 0.37233701 0.95500004
-0.33916667 0.37233701 0.95500004
-0.33750814 0.37233701 0.95500004
-0.33584964 0.37233701 0.95500004
-0.33524093 0.37350664 0.95800006
-0.33183619 0.37155724 0.95300007
-0.33018115 0.37155724 0.95300007
0.20961133 0.25927132 0.66500002
0.21013233 0.25849155 0.66300005
0.21128374 0.25849155 0.66300005
0.21243516 0.25849155 0.66300005
0.21358655 0.25849155 0.66300005
0.21441409 0.25810167 0.66200006
0.21556376 0.25810167 0.66200006
0.21671343 0.25810167 0.66200006
0.21753401 0.2577118 0.66100001
0.21868195 0.2577118 0.66100001
0.21949731 0.25732189 0.66000003
0.22064351 0.25732189 0.66000003
0.22111762 0.25654215 0.65800005
0.22226034 0.25654215 0.65800005
0.22306356 0.25615227 0.65700001
0.22386329 0.25576237 0.65600002
0.22465955 0.25537249 0.65500003
0.22579707 0.25537249 0.65500003
0.22624165 0.25459275 0.65300006
0.22702749 0.25420284 0.65200001
0.2281598 0.25420284 0.65200001
0.22929211 0.25420284 0.65200001
0.23042442 0.25420284 0.65200001
0.23120157 0.25381297 0.65100002
0.23233214 0.25381297 0.65100002
0.23346271 0.25381297 0.65100002
0.23423292 0.25342309 0.65000004
0.23463757 0.25264332 0.648
0.23576292 0.25264332 0.648
0.23688829 0.25264332 0.648
0.23764634 0.25225344 0.64700001
0.23876996 0.25225344 0.64700001
0.23989359 0.25225344 0.64700001
0.24101721 0.25225344 0.64700001
0.24214083 0.25225344 0.64700001
-0.42973819 0.38378599 0.98000002
-0.42803624 0.38378599 0.98000002
-0.42633432 0.38378599 0.98000002
-0.42463237 0.38378599 0.98000002
-0.42293045 0.38378599 0.98000002
-0.4212285 0.38378599 0.98000002
-0.41952658 0.38378599 0.98000002
-0.41782466 0.38378599 0.98000002
-0.4161227 0.38378599 0.98000002
-0.41315216 0.38261113 0.97700006
-0.41145542 0.38261113 0.97700006
-0.40850049 0.38143626 0.97400004
-0.40597364 0.38065302 0.97200006
-0.40511745 0.38143626 0.97400004
-0.40259755 0.38065302 0.97200006
-0.40173444 0.38143626 0.97400004
-0.40004292 0.38143626 0.97400004
-0.39957836 0.38261113 0.97700006
-0.39665988 0.38143626 0.97400004
-0.39496836 0.38143626 0.97400004
-0.39327687 0.38143626 0.97400004
-0.39078128 0.38065302 0.97200006
-0.38989383 0.38143626 0.97400004
-0.38740519 0.38065302 0.97200006
-0.38571715 0.38065302 0.97200006
-0.38402912 0.38065302 0.97200006
-0.38234106 0.38065302 0.97200006
-0.38065302 0.38065302 0.97200006
-0.37896499 0.38065302 0.97200006
-0.37727696 0.38065302 0.97200006
-0.37558892 0.38065302 0.97200006
-0.37390086 0.38065302 0.97200006
-0.37106404 0.37947819 0.96900004
-0.36938119 0.37947819 0.96900004
-0.36769837 0.37947819 0.96900004
-0.36601552 0.37947819 0.96900004
-0.36433271 0.37947819 0.96900004
-0.36264989 0.37947819 0.96900004
-0.36096704 0.37947819 0.96900004
-0.35928422 0.37947819 0.96900004
-0.35649425 0.37830332 0.96600002
-0.35481665 0.37830332 0.96600002
-0.35204232 0.37712845 0.96300006
-0.34964225 0.37634522 0.96100003
-0.34869748 0.37712845 0.96300006
-0.34522331 0.37517038 0.95800006
-0.34463543 0.37634522 0.96100003
-0.34189585 0.37517038 0.95800006
-0.33916667 0.37399551 0.95500004
-0.33856839 0.37517038 0.95800006
-0.33690467 0.37517038 0.95800006
-0.33524093 0.37517038 0.95800006
-0.33253261 0.37399551 0.95500004
-0.33018115 0.37321228 0.95300007
-0.32852611 0.37321228 0.95300007
0.21024173 0.26120943 0.66700006
0.21076621 0.26042619 0.66500002
0.21128374 0.25964296 0.66300005
0.21243516 0.25964296 0.66300005
0.21358655 0.25964296 0.66300005
0.21473797 0.25964296 0.66300005
0.21556376 0.25925136 0.66200006
0.21671343 0.25925136 0.66200006
0.21753401 0.25885972 0.66100001
0.21835111 0.25846812 0.66000003
0.21949731 0.25846812 0.66000003
0.21997489 0.25768486 0.65800005
0.22111762 0.25768486 0.65800005
0.22192256 0.25729325 0.65700001
0.22306356 0.25729325 0.65700001
0.22352204 0.25651002 0.65500003
0.22465955 0.25651002 0.65500003
0.22510761 0.25572678 0.65300006
0.22624165 0.25572678 0.65300006
0.22702749 0.25533515 0.65200001
0.2281598 0.25533515 0.65200001
0.22929211 0.25533515 0.65200001
0.23042442 0.25533515 0.65200001
0.23120157 0.25494355 0.65100002
0.23233214 0.25494355 0.65100002
0.23310409 0.25455192 0.65000004
0.23423292 0.25455192 0.65000004
0.23463757 0.25376868 0.648
0.23576292 0.25376868 0.648
0.23688829 0.25376868 0.648
0.23764634 0.25337708 0.64700001
0.23876996 0.25337708 0.64700001
0.23989359 0.25337708 0.64700001
0.24101721 0.25337708 0.64700001
0.24214083 0.25337708 0.64700001
0.24326445 0.25337708 0.64700001
-0.43276083 0.38666797 0.98300004
-0.42973819 0.38548791 0.98000002
-0.42803624 0.38548791 0.98000002
-0.42502922 0.38430783 0.97700006
-0.42463237 0.38548791 0.98000002
-0.42293045 0.38548791 0.98000002
-0.4212285 0.38548791 0.98000002
-0.41952658 0.38548791 0.98000002
-0.4165456 0.38430783 0.97700006
-0.41484886 0.38430783 0.97700006
-0.4118835 0.38312778 0.97400004
-0.41019198 0.38312778 0.97400004
-0.40766168 0.38234106 0.97200006
-0.40597364 0.38234106 0.97200006
-0.40428558 0.38234106 0.97200006
-0.40259755 0.38234106 0.97200006
-0.40090951 0.38234106 0.97200006
-0.40004292 0.38312778 0.97400004
-0.3983514 0.38312778 0.97400004
-0.39665988 0.38312778 0.97400004
-0.39496836 0.38312778 0.97400004
-0.39327687 0.38312778 0.97400004
-0.39078128 0.38234106 0.97200006
-0.38989383 0.38312778 0.97400004
-0.38740519 0.38234106 0.97200006
-0.38571715 0.38234106 0.97200006
-0.38402912 0.38234106 0.97200006
-0.38234106 0.38234106 0.97200006
-0.38065302 0.38234106 0.97200006
-0.37896499 0.38234106 0.97200006
-0.37727696 0.38234106 0.97200006
-0.37442967 0.381161 0.96900004
-0.37274686 0.381161 0.96900004
-0.37106404 0.381161 0.96900004
-0.36938119 0.381161 0.96900004
-0.36769837 0.381161 0.96900004
-0.36601552 0.381161 0.96900004
-0.36320475 0.37998095 0.96600002
-0.36152712 0.37998095 0.96600002
-0.35984951 0.37998095 0.96600002
-0.35928422 0.381161 0.96900004
-0.35538712 0.37880087 0.96300006
-0.35481665 0.37998095 0.96600002
-0.35204232 0.37880087 0.96300006
-0.3503699 0.37880087 0.96300006
-0.34869748 0.37880087 0.96300006
-0.34630436 0.37801418 0.96100003
-0.34463543 0.37801418 0.96100003
-0.34189585 0.37683409 0.95800006
-0.33845636 0.37486732 0.95300007
-0.33750814 0.37565404 0.95500004
-0.33584964 0.37565404 0.95500004
-0.33524093 0.37683409 0.95800006
-0.33183619 0.37486732 0.95300007
-0.33018115 0.37486732 0.95300007
-0.32749194 0.37368727 0.95000005
-0.32584208 0.37368727 0.95000005
0.21002379 0.26354787 0.67000002
0.21087216 0.26315451 0.66900003
0.21076621 0.26158109 0.66500002
0.21128374 0.26079437 0.66300005
0.21243516 0.26079437 0.66300005
0.21358655 0.26079437 0.66300005
0.21473797 0.26079437 0.66300005
0.21588938 0.26079437 0.66300005
0.21671343 0.26040101 0.66200006
0.21753401 0.26000765 0.66100001
0.21835111 0.25961432 0.66000003
0.21883217 0.2588276 0.65800005
0.21997489 0.2588276 0.65800005
0.22111762 0.2588276 0.65800005
0.22192256 0.25843424 0.65700001
0.22272404 0.25804088 0.65600002
0.22352204 0.25764754 0.65500003
0.22465955 0.25764754 0.65500003
0.22510761 0.25686082 0.65300006
0.22624165 0.25686082 0.65300006
0.2273757 0.25686082 0.65300006
0.2281598 0.25646746 0.65200001
0.22929211 0.25646746 0.65200001
0.23042442 0.25646746 0.65200001
0.23155671 0.25646746 0.65200001
0.23233214 0.2560741 0.65100002
0.23346271 0.2560741 0.65100002
0.23423292 0.25568077 0.65000004
0.23463757 0.25489405 0.648
0.23576292 0.25489405 0.648
0.23688829 0.25489405 0.648
0.23764634 0.25450069 0.64700001
0.23876996 0.25450069 0.64700001
0.23989359 0.25450069 0.64700001
0.24101721 0.25450069 0.64700001
0.24214083 0.25450069 0.64700001
0.24326445 0.25450069 0.64700001
-0.43144011 0.38718984 0.98000002
-0.42973819 0.38718984 0.98000002
-0.42672592 0.38600457 0.97700006
-0.42502922 0.38600457 0.97700006
-0.42333248 0.38600457 0.97700006
-0.42163575 0.38600457 0.97700006
-0.41993904 0.38600457 0.97700006
-0.41824231 0.38600457 0.97700006
-0.41526654 0.3848193 0.97400004
-0.41357502 0.3848193 0.97400004
-0.4118835 0.3848193 0.97400004
-0.41019198 0.3848193 0.97400004
-0.40766168 0.38402912 0.97200006
-0.40597364 0.38402912 0.97200006
-0.40428558 0.38402912 0.97200006
-0.40135497 0.38284382 0.96900004
-0.40090951 0.38402912 0.97200006
-0.39922148 0.38402912 0.97200006
-0.39753345 0.38402912 0.97200006
-0.39584538 0.38402912 0.97200006
-0.39415735 0.38402912 0.97200006
-0.39246932 0.38402912 0.97200006
-0.39078128 0.38402912 0.97200006
-0.38909322 0.38402912 0.97200006
-0.38740519 0.38402912 0.97200006
-0.38571715 0.38402912 0.97200006
-0.38402912 0.38402912 0.97200006
-0.38234106 0.38402912 0.97200006
-0.37947819 0.38284382 0.96900004
-0.37779534 0.38284382 0.96900004
-0.37611252 0.38284382 0.96900004
-0.37442967 0.38284382 0.96900004
-0.37274686 0.38284382 0.96900004
-0.37106404 0.38284382 0.96900004
-0.36823761 0.38165855 0.96600002
-0.36655998 0.38165855 0.96600002
-0.36488235 0.38165855 0.96600002
-0.36320475 0.38165855 0.96600002
-0.36152712 0.38165855 0.96600002
-0.35873196 0.38047329 0.96300006
-0.35817188 0.38165855 0.96600002
-0.35538712 0.38047329 0.96300006
-0.35371473 0.38047329 0.96300006
-0.35131118 0.37968311 0.96100003
-0.34964225 0.37968311 0.96100003
-0.34797332 0.37968311 0.96100003
-0.34630436 0.37968311 0.96100003
-0.34355956 0.37849784 0.95800006
-0.34189585 0.37849784 0.95800006
-0.33845636 0.37652236 0.95300007
-0.33750814 0.37731254 0.95500004
-0.33584964 0.37731254 0.95500004
-0.33349124 0.37652236 0.95300007
-0.33183619 0.37652236 0.95300007
-0.33018115 0.37652236 0.95300007
-0.32749194 0.37533709 0.95000005
-0.32584208 0.37533709 0.95000005
-0.3208926 0.37533709 0.95000005
0.21118736 0.26471141 0.67000002
0.21203399 0.26431632 0.66900003
0.2119211 0.26273596 0.66500002
0.21307598 0.26273596 0.66500002
0.21423087 0.26273596 0.66500002
0.21473797 0.26194578 0.66300005
0.21556376 0.26155069 0.66200006
0.21638606 0.26115561 0.66100001
0.21720491 0.26076052 0.66000003
0.21835111 0.26076052 0.66000003
0.21883217 0.25997034 0.65800005
0.21997489 0.25997034 0.65800005
0.22111762 0.25997034 0.65800005
0.22192256 0.25957522 0.65700001
0.22306356 0.25957522 0.65700001
0.22386329 0.25918013 0.65600002
0.22465955 0.25878504 0.65500003
0.22510761 0.25799486 0.65300006
0.22624165 0.25799486 0.65300006
0.2273757 0.25799486 0.65300006
0.2281598 0.25759977 0.65200001
0.22929211 0.25759977 0.65200001
0.23042442 0.25759977 0.65200001
0.23120157 0.25720468 0.65100002
0.23233214 0.25720468 0.65100002
0.23346271 0.25720468 0.65100002
0.23423292 0.25680959 0.65000004
0.23463757 0.25601941 0.648
0.23576292 0.25601941 0.648
0.23688829 0.25601941 0.648
0.23801364 0.25601941 0.648
0.23913901 0.25601941 0.648
0.24026437 0.25601941 0.648
0.24101721 0.25562432 0.64700001
0.24214083 0.25562432 0.64700001
0.24326445 0.25562432 0.64700001
-0.43144011 0.38889179 0.98000002
-0.42973819 0.38889179 0.98000002
-0.42672592 0.3877013 0.97700006
-0.42372411 0.38651082 0.97400004
-0.42203259 0.38651082 0.97400004
-0.42034107 0.38651082 0.97400004
-0.41864955 0.38651082 0.97400004
-0.41695806 0.38651082 0.97400004
-0.41441384 0.38571715 0.97200006
-0.41272581 0.38571715 0.97200006
-0.41103774 0.38571715 0.97200006
-0.40934971 0.38571715 0.97200006
-0.40640345 0.38452667 0.96900004
-0.40472063 0.38452667 0.96900004
-0.40303779 0.38452667 0.96900004
-0.40135497 0.38452667 0.96900004
-0.39967215 0.38452667 0.96900004
-0.3979893 0.38452667 0.96900004
-0.39630648 0.38452667 0.96900004
-0.39462364 0.38452667 0.96900004
-0.39415735 0.38571715 0.97200006
-0.39246932 0.38571715 0.97200006
-0.39078128 0.38571715 0.97200006
-0.38909322 0.38571715 0.97200006
-0.38620949 0.38452667 0.96900004
-0.38452667 0.38452667 0.96900004
-0.38402912 0.38571715 0.97200006
-0.381161 0.38452667 0.96900004
-0.37830332 0.38333619 0.96600002
-0.37545606 0.3821457 0.96300006
-0.37494808 0.38333619 0.96600002
-0.37327045 0.38333619 0.96600002
-0.37159285 0.38333619 0.96600002
-0.36991522 0.38333619 0.96600002
-0.36823761 0.38333619 0.96600002
-0.36655998 0.38333619 0.96600002
-0.36488235 0.38333619 0.96600002
-0.36207679 0.3821457 0.96300006
-0.35965586 0.38135204 0.96100003
-0.35798693 0.38135204 0.96100003
-0.35705954 0.3821457 0.96300006
-0.35464907 0.38135204 0.96100003
-0.35298011 0.38135204 0.96100003
-0.35131118 0.38135204 0.96100003
-0.34964225 0.38135204 0.96100003
-0.34797332 0.38135204 0.96100003
-0.34522331 0.38016155 0.95800006
-0.34355956 0.38016155 0.95800006
-0.3401114 0.3781774 0.95300007
-0.33845636 0.3781774 0.95300007
-0.33680132 0.3781774 0.95300007
-0.33584964 0.37897107 0.95500004
-0.33349124 0.3781774 0.95300007
-0.33183619 0.3781774 0.95300007
-0.33018115 0.3781774 0.95300007
-0.32852611 0.3781774 0.95300007
-0.32687107 0.3781774 0.95300007
-0.32419226 0.37698692 0.95000005
0.2119211 0.26389086 0.66500002
0.21307598 0.26389086 0.66500002
0.21423087 0.26389086 0.66500002
0.21473797 0.2630972 0.66300005
0.21556376 0.26270038 0.66200006
0.2160587 0.26190671 0.66000003
0.21720491 0.26190671 0.66000003
0.21835111 0.26190671 0.66000003
0.21883217 0.26111305 0.65800005
0.21997489 0.26111305 0.65800005
0.22111762 0.26111305 0.65800005
0.22192256 0.26071623 0.65700001
0.22306356 0.26071623 0.65700001
0.22420454 0.26071623 0.65700001
0.22500254 0.26031938 0.65600002
0.22579707 0.25992256 0.65500003
0.22624165 0.2591289 0.65300006
0.2273757 0.2591289 0.65300006
0.2281598 0.25873208 0.65200001
0.22929211 0.25873208 0.65200001
0.23007101 0.25833526 0.65100002
0.23120157 0.25833526 0.65100002
0.23197526 0.25793841 0.65000004
0.23346271 0.25833526 0.65100002
0.23423292 0.25793841 0.65000004
0.23463757 0.25714478 0.648
0.23576292 0.25714478 0.648
0.23688829 0.25714478 0.648
0.23801364 0.25714478 0.648
0.23913901 0.25714478 0.648
0.23989359 0.25674793 0.64700001
0.24101721 0.25674793 0.64700001
0.24214083 0.25674793 0.64700001
0.24326445 0.25674793 0.64700001
-0.42842266 0.38939801 0.97700006
-0.42672592 0.38939801 0.97700006
-0.42372411 0.38820231 0.97400004
-0.42203259 0.38820231 0.97400004
-0.41947794 0.38740519 0.97200006
-0.41778991 0.38740519 0.97200006
-0.41610187 0.38740519 0.97200006
-0.41313478 0.38620949 0.96900004
-0.41145194 0.38620949 0.96900004
-0.40976912 0.38620949 0.96900004
-0.4080863 0.38620949 0.96900004
-0.40514523 0.38501379 0.96600002
-0.40346763 0.38501379 0.96600002
-0.40178999 0.38501379 0.96600002
-0.40011239 0.38501379 0.96600002
-0.39967215 0.38620949 0.96900004
-0.3979893 0.38620949 0.96900004
-0.39630648 0.38620949 0.96900004
-0.39462364 0.38620949 0.96900004
-0.39294082 0.38620949 0.96900004
-0.391258 0.38620949 0.96900004
-0.39078128 0.38740519 0.97200006
-0.38909322 0.38740519 0.97200006
-0.38620949 0.38620949 0.96900004
-0.38452667 0.38620949 0.96900004
-0.38402912 0.38740519 0.97200006
-0.381161 0.38620949 0.96900004
-0.37947819 0.38620949 0.96900004
-0.37662569 0.38501379 0.96600002
-0.37494808 0.38501379 0.96600002
-0.37211123 0.38381812 0.96300006
-0.37043881 0.38381812 0.96300006
-0.36991522 0.38501379 0.96600002
-0.36709401 0.38381812 0.96300006
-0.36542159 0.38381812 0.96300006
-0.36374918 0.38381812 0.96300006
-0.36132479 0.38302097 0.96100003
-0.35853311 0.38182527 0.95800006
-0.35686937 0.38182527 0.95800006
-0.356318 0.38302097 0.96100003
-0.35464907 0.38302097 0.96100003
-0.3518782 0.38182527 0.95800006
-0.35021448 0.38182527 0.95800006
-0.34855074 0.38182527 0.95800006
-0.34688702 0.38182527 0.95800006
-0.34522331 0.38182527 0.95800006
-0.3424837 0.3806296 0.95500004
-0.34082517 0.3806296 0.95500004
-0.33916667 0.3806296 0.95500004
-0.33750814 0.3806296 0.95500004
-0.33584964 0.3806296 0.95500004
-0.33419111 0.3806296 0.95500004
-0.33183619 0.37983245 0.95300007
-0.33087409 0.3806296 0.95500004
-0.32921556 0.3806296 0.95500004
-0.32755706 0.3806296 0.95500004
-0.32589853 0.3806296 0.95500004
0.2119211 0.26504573 0.66500002
0.21307598 0.26504573 0.66500002
0.21423087 0.26504573 0.66500002
0.21473797 0.26424861 0.66300005
0.21556376 0.26385003 0.66200006
0.2160587 0.26305291 0.66000003
0.21720491 0.26305291 0.66000003
0.21835111 0.26305291 0.66000003
0.21949731 0.26305291 0.66000003
0.21997489 0.26225579 0.65800005
0.22111762 0.26225579 0.65800005
0.22226034 0.26225579 0.65800005
0.22306356 0.26185721 0.65700001
0.22420454 0.26185721 0.65700001
0.22500254 0.26145864 0.65600002
0.22579707 0.26106009 0.65500003
0.22624165 0.26026297 0.65300006
0.2273757 0.26026297 0.65300006
0.2281598 0.25986439 0.65200001
0.22929211 0.25986439 0.65200001
0.23007101 0.25946581 0.65100002
0.23120157 0.25946581 0.65100002
0.23197526 0.25906727 0.65000004
0.23310409 0.25906727 0.65000004
0.23423292 0.25906727 0.65000004
0.23463757 0.25827011 0.648
0.23576292 0.25827011 0.648
0.23688829 0.25827011 0.648
0.23801364 0.25827011 0.648
0.23876996 0.25787157 0.64700001
0.23989359 0.25787157 0.64700001
0.24101721 0.25787157 0.64700001
0.24214083 0.25787157 0.64700001
-0.42672592 0.39109474 0.97700006
-0.42372411 0.38989383 0.97400004
-0.421166 0.38909322 0.97200006
-0.41947794 0.38909322 0.97200006
-0.41778991 0.38909322 0.97200006
-0.41610187 0.38909322 0.97200006
-0.41313478 0.38789234 0.96900004
-0.41145194 0.38789234 0.96900004
-0.40976912 0.38789234 0.96900004
-0.4080863 0.38789234 0.96900004
-0.40514523 0.38669142 0.96600002
-0.40346763 0.38669142 0.96600002
-0.40178999 0.38669142 0.96600002
-0.40011239 0.38669142 0.96600002
-0.39967215 0.38789234 0.96900004
-0.3979893 0.38789234 0.96900004
-0.39630648 0.38789234 0.96900004
-0.39462364 0.38789234 0.96900004
-0.39294082 0.38789234 0.96900004
-0.391258 0.38789234 0.96900004
-0.39078128 0.38909322 0.97200006
-0.38909322 0.38909322 0.97200006
-0.38620949 0.38789234 0.96900004
-0.38452667 0.38789234 0.96900004
-0.38402912 0.38909322 0.97200006
-0.381161 0.38789234 0.96900004
-0.37830332 0.38669142 0.96600002
-0.37545606 0.38549051 0.96300006
-0.37378365 0.38549051 0.96300006
-0.37133843 0.38468993 0.96100003
-0.37043881 0.38549051 0.96300006
-0.36876643 0.38549051 0.96300006
-0.36709401 0.38549051 0.96300006
-0.36542159 0.38549051 0.96300006
-0.36374918 0.38549051 0.96300006
-0.35077628 0.3822881 0.95500004
-0.34911776 0.3822881 0.95500004
-0.34745926 0.3822881 0.95500004
-0.34580073 0.3822881 0.95500004
-0.34414223 0.3822881 0.95500004
-0.3424837 0.3822881 0.95500004
-0.3401114 0.38148749 0.95300007
-0.33845636 0.38148749 0.95300007
-0.33750814 0.3822881 0.95500004
-0.33584964 0.3822881 0.95500004
-0.33419111 0.3822881 0.95500004
-0.33253261 0.3822881 0.95500004
-0.33087409 0.3822881 0.95500004
-0.32921556 0.3822881 0.95500004
-0.32858601 0.38348901 0.95800006
-0.3269223 0.38348901 0.95800006
0.2119211 0.2662006 0.66500002
0.21307598 0.2662006 0.66500002
0.21423087 0.2662006 0.66500002
0.21473797 0.26540002 0.66300005
0.21556376 0.26499972 0.66200006
0.2160587 0.26419911 0.66000003
0.21720491 0.26419911 0.66000003
0.21835111 0.26419911 0.66000003
0.21949731 0.26419911 0.66000003
0.22064351 0.26419911 0.66000003
0.2217897 0.26419911 0.66000003
0.2229359 0.26419911 0.66000003
0.22340307 0.2633985 0.65800005
0.22454579 0.2633985 0.65800005
0.22568852 0.2633985 0.65800005
0.2261418 0.26259789 0.65600002
0.22693458 0.26219761 0.65500003
0.2273757 0.261397 0.65300006
0.2281598 0.2609967 0.65200001
0.22929211 0.2609967 0.65200001
0.23042442 0.2609967 0.65200001
0.23120157 0.26059639 0.65100002
0.23197526 0.26019609 0.65000004
0.23310409 0.26019609 0.65000004
0.23351221 0.25939548 0.648
0.23463757 0.25939548 0.648
0.23576292 0.25939548 0.648
0.23652272 0.25899518 0.64700001
0.23801364 0.25939548 0.648
0.23913901 0.25939548 0.648
0.23989359 0.25899518 0.64700001
0.24101721 0.25899518 0.64700001
0.24214083 0.25899518 0.64700001
0.24326445 0.25899518 0.64700001
-0.421166 0.39078128 0.97200006
-0.41947794 0.39078128 0.97200006
-0.41778991 0.39078128 0.97200006
-0.41610187 0.39078128 0.97200006
-0.41313478 0.38957515 0.96900004
-0.41145194 0.38957515 0.96900004
-0.40976912 0.38957515 0.96900004
-0.4080863 0.38957515 0.96900004
-0.40514523 0.38836905 0.96600002
-0.40472063 0.38957515 0.96900004
-0.40178999 0.38836905 0.96600002
-0.40011239 0.38836905 0.96600002
-0.39967215 0.38957515 0.96900004
-0.39675716 0.38836905 0.96600002
-0.39507952 0.38836905 0.96600002
-0.39340189 0.38836905 0.96600002
-0.39294082 0.38957515 0.96900004
-0.391258 0.38957515 0.96900004
-0.39078128 0.39078128 0.97200006
-0.38909322 0.39078128 0.97200006
-0.38620949 0.38957515 0.96900004
-0.38571715 0.39078128 0.97200006
-0.38402912 0.39078128 0.97200006
-0.381161 0.38957515 0.96900004
-0.37545606 0.38716292 0.96300006
-0.37300736 0.38635886 0.96100003
-0.37133843 0.38635886 0.96100003
-0.3696695 0.38635886 0.96100003
-0.36800054 0.38635886 0.96100003
-0.36633161 0.38635886 0.96100003
-0.36542159 0.38716292 0.96300006
-0.36299375 0.38635886 0.96100003
-0.34911776 0.38394663 0.95500004
-0.34745926 0.38394663 0.95500004
-0.34580073 0.38394663 0.95500004
-0.34414223 0.38394663 0.95500004
-0.3424837 0.38394663 0.95500004
-0.3401114 0.38314253 0.95300007
-0.33916667 0.38394663 0.95500004
-0.33750814 0.38394663 0.95500004
-0.33584964 0.38394663 0.95500004
-0.33419111 0.38394663 0.95500004
-0.33357722 0.38515273 0.95800006
-0.33191347 0.38515273 0.95800006
-0.33024976 0.38515273 0.95800006
-0.32858601 0.38515273 0.95800006
-0.3269223 0.38515273 0.95800006
-0.32525858 0.38515273 0.95800006
0.21041888 0.27137589 0.67500001
0.21159112 0.27137589 0.67500001
0.21244818 0.27097383 0.67400002
0.2136187 0.27097383 0.67400002
0.2147892 0.27097383 0.67400002
0.2137168 0.26815957 0.66700006
0.21487516 0.26815957 0.66700006
0.21473797 0.26655143 0.66300005
0.21523812 0.26574734 0.66100001
0.2160587 0.26534531 0.66000003
0.21720491 0.26534531 0.66000003
0.21835111 0.26534531 0.66000003
0.21949731 0.26534531 0.66000003
0.22064351 0.26534531 0.66000003
0.2217897 0.26534531 0.66000003
0.2229359 0.26534531 0.66000003
0.22408211 0.26534531 0.66000003
0.22522831 0.26534531 0.66000003
0.22568852 0.26454124 0.65800005
0.22648652 0.26413921 0.65700001
0.22728105 0.26373714 0.65600002
0.22807209 0.26333511 0.65500003
0.22850974 0.26253104 0.65300006
0.22964378 0.26253104 0.65300006
0.23042442 0.26212901 0.65200001
0.23155671 0.26212901 0.65200001
0.23197526 0.26132491 0.65000004
0.23310409 0.26132491 0.65000004
0.23351221 0.26052085 0.648
0.23463757 0.26052085 0.648
0.23576292 0.26052085 0.648
0.23652272 0.26011881 0.64700001
0.23764634 0.26011881 0.64700001
0.23913901 0.26052085 0.648
0.23989359 0.26011881 0.64700001
0.24101721 0.26011881 0.64700001
0.24214083 0.26011881 0.64700001
-0.421166 0.39246932 0.97200006
-0.41947794 0.39246932 0.97200006
-0.41650045 0.391258 0.96900004
-0.4148176 0.391258 0.96900004
-0.41313478 0.391258 0.96900004
-0.41145194 0.391258 0.96900004
-0.40976912 0.391258 0.96900004
-0.4080863 0.391258 0.96900004
-0.40514523 0.39004666 0.96600002
-0.40472063 0.391258 0.96900004
-0.40303779 0.391258 0.96900004
-0.40011239 0.39004666 0.96600002
-0.39967215 0.391258 0.96900004
-0.39675716 0.39004666 0.96600002
-0.39507952 0.39004666 0.96600002
-0.39340189 0.39004666 0.96600002
-0.39294082 0.391258 0.96900004
-0.39004666 0.39004666 0.96600002
-0.38957515 0.391258 0.96900004
-0.38909322 0.39246932 0.97200006
-0.38620949 0.391258 0.96900004
-0.37300736 0.38802779 0.96100003
-0.37017921 0.38681647 0.95800006
-0.36851546 0.38681647 0.95800006
-0.36685175 0.38681647 0.95800006
-0.365188 0.38681647 0.95800006
-0.34507653 0.38479757 0.95300007
-0.34342149 0.38479757 0.95300007
-0.34176645 0.38479757 0.95300007
-0.3401114 0.38479757 0.95300007
-0.33916667 0.38560513 0.95500004
-0.33750814 0.38560513 0.95500004
-0.33690467 0.38681647 0.95800006
-0.33524093 0.38681647 0.95800006
-0.33357722 0.38681647 0.95800006
-0.33191347 0.38681647 0.95800006
-0.33024976 0.38681647 0.95800006
-0.32858601 0.38681647 0.95800006
-0.3269223 0.38681647 0.95800006
-0.32525858 0.38681647 0.95800006
0.20955662 0.2729519 0.67600006
0.21073061 0.2729519 0.67600006
0.2119046 0.2729519 0.67600006
0.21244818 0.27214435 0.67400002
0.2136187 0.27214435 0.67400002
0.21319582 0.27012548 0.66900003
0.2137168 0.26931792 0.66700006
0.21487516 0.26931792 0.66700006
0.21473797 0.26770285 0.66300005
0.21556376 0.26729906 0.66200006
0.2160587 0.2664915 0.66000003
0.21654671 0.26568395 0.65800005
0.21835111 0.2664915 0.66000003
0.21949731 0.2664915 0.66000003
0.22064351 0.2664915 0.66000003
0.2217897 0.2664915 0.66000003
0.2229359 0.2664915 0.66000003
0.22408211 0.2664915 0.66000003
0.22522831 0.2664915 0.66000003
0.22637451 0.2664915 0.66000003
0.22683126 0.26568395 0.65800005
0.22728105 0.2648764 0.65600002
0.22807209 0.26447263 0.65500003
0.22850974 0.26366508 0.65300006
0.22964378 0.26366508 0.65300006
0.23042442 0.26326132 0.65200001
0.23155671 0.26326132 0.65200001
0.23233214 0.26285753 0.65100002
0.23310409 0.26245376 0.65000004
0.23423292 0.26245376 0.65000004
0.23463757 0.26164621 0.648
0.23576292 0.26164621 0.648
0.23652272 0.26124242 0.64700001
0.23764634 0.26124242 0.64700001
0.23876996 0.26124242 0.64700001
0.23989359 0.26124242 0.64700001
0.24101721 0.26124242 0.64700001
0.24214083 0.26124242 0.64700001
-0.41650045 0.39294082 0.96900004
-0.4148176 0.39294082 0.96900004
-0.41185573 0.39172429 0.96600002
-0.41145194 0.39294082 0.96900004
-0.40976912 0.39294082 0.96900004
-0.40682286 0.39172429 0.96600002
-0.40514523 0.39172429 0.96600002
-0.40346763 0.39172429 0.96600002
-0.40178999 0.39172429 0.96600002
-0.40011239 0.39172429 0.96600002
-0.39967215 0.39294082 0.96900004
-0.39675716 0.39172429 0.96600002
-0.39385256 0.39050776 0.96300006
-0.39340189 0.39172429 0.96600002
-0.39172429 0.39172429 0.96600002
-0.39004666 0.39172429 0.96600002
-0.38836905 0.39172429 0.96600002
-0.38909322 0.39415735 0.97200006
-0.38620949 0.39294082 0.96900004
-0.36901996 0.38726366 0.95500004
-0.34580073 0.38726366 0.95500004
-0.34342149 0.38645262 0.95300007
-0.34176645 0.38645262 0.95300007
-0.34082517 0.38726366 0.95500004
-0.33845636 0.38645262 0.95300007
-0.33750814 0.38726366 0.95500004
-0.33584964 0.38726366 0.95500004
-0.33419111 0.38726366 0.95500004
-0.33357722 0.38848019 0.95800006
-0.33191347 0.38848019 0.95800006
-0.33024976 0.38848019 0.95800006
-0.32858601 0.38848019 0.95800006
-0.32794607 0.38969672 0.96100003
-0.32627714 0.38969672 0.96100003
0.20955662 0.2741259 0.67600006
0.21073061 0.2741259 0.67600006
0.21150257 0.27209833 0.671
0.21266787 0.27209833 0.671
0.21319582 0.27128732 0.66900003
0.21435764 0.27128732 0.66900003
0.21487516 0.27047628 0.66700006
0.21473797 0.26885423 0.66300005
0.21556376 0.26844874 0.66200006
0.2160587 0.2676377 0.66000003
0.21654671 0.26682669 0.65800005
0.21835111 0.2676377 0.66000003
0.21949731 0.2676377 0.66000003
0.22064351 0.2676377 0.66000003
0.2217897 0.2676377 0.66000003
0.2229359 0.2676377 0.66000003
0.22408211 0.2676377 0.66000003
0.22522831 0.2676377 0.66000003
0.22637451 0.2676377 0.66000003
0.22683126 0.26682669 0.65800005
0.22762752 0.26642117 0.65700001
0.2284203 0.26601565 0.65600002
0.22920962 0.26561016 0.65500003
0.22964378 0.26479912 0.65300006
0.23077783 0.26479912 0.65300006
0.23155671 0.26439363 0.65200001
0.23268902 0.26439363 0.65200001
0.23346271 0.26398811 0.65100002
0.23423292 0.26358259 0.65000004
0.23536175 0.26358259 0.65000004
0.23649059 0.26358259 0.65000004
0.23688829 0.26277158 0.648
0.23801364 0.26277158 0.648
0.23913901 0.26277158 0.648
0.24026437 0.26277158 0.648
0.24138972 0.26277158 0.648
-0.41057667 0.39218014 0.96300006
-0.4101781 0.39340189 0.96600002
-0.40850049 0.39340189 0.96600002
-0.40682286 0.39340189 0.96600002
-0.40514523 0.39340189 0.96600002
-0.40346763 0.39340189 0.96600002
-0.40178999 0.39340189 0.96600002
-0.40011239 0.39340189 0.96600002
-0.39843476 0.39340189 0.96600002
-0.39552498 0.39218014 0.96300006
-0.39385256 0.39218014 0.96300006
-0.39340189 0.39340189 0.96600002
-0.39172429 0.39340189 0.96600002
-0.39004666 0.39340189 0.96600002
-0.38836905 0.39340189 0.96600002
-0.38669142 0.39340189 0.96600002
-0.38501379 0.39340189 0.96600002
-0.38333619 0.39340189 0.96600002
-0.36824715 0.38810769 0.95300007
-0.34414223 0.38892218 0.95500004
-0.3424837 0.38892218 0.95500004
-0.34082517 0.38892218 0.95500004
-0.33916667 0.38892218 0.95500004
-0.33750814 0.38892218 0.95500004
-0.33690467 0.3901439 0.95800006
-0.33524093 0.3901439 0.95800006
-0.33357722 0.3901439 0.95800006
-0.33191347 0.3901439 0.95800006
-0.33024976 0.3901439 0.95800006
-0.32858601 0.3901439 0.95800006
-0.3269223 0.3901439 0.95800006
-0.32627714 0.39136565 0.96100003
0.21118736 0.27285638 0.67000002
0.21235092 0.27285638 0.67000002
0.21319582 0.27244914 0.66900003
0.21435764 0.27244914 0.66900003
0.21487516 0.27163464 0.66700006
0.21538575 0.27082014 0.66500002
0.21556376 0.26959839 0.66200006
0.2160587 0.2687839 0.66000003
0.21720491 0.2687839 0.66000003
0.21868195 0.26919115 0.66100001
0.21883217 0.2679694 0.65800005
0.22064351 0.2687839 0.66000003
0.2217897 0.2687839 0.66000003
0.22226034 0.2679694 0.65800005
0.22442162 0.26919115 0.66100001
0.22556956 0.26919115 0.66100001
0.22637451 0.2687839 0.66000003
0.22683126 0.2679694 0.65800005
0.22762752 0.26756215 0.65700001
0.2284203 0.2671549 0.65600002
0.22920962 0.26674765 0.65500003
0.22964378 0.26593316 0.65300006
0.23077783 0.26593316 0.65300006
0.23191187 0.26593316 0.65300006
0.23268902 0.26552591 0.65200001
0.23346271 0.26511866 0.65100002
0.23459329 0.26511866 0.65100002
0.23536175 0.26471141 0.65000004
0.23649059 0.26471141 0.65000004
0.23761943 0.26471141 0.65000004
0.23801364 0.26389694 0.648
0.23913901 0.26389694 0.648
0.24026437 0.26389694 0.648
0.24138972 0.26389694 0.648
-0.4080863 0.39630648 0.96900004
-0.40640345 0.39630648 0.96900004
-0.40346763 0.39507952 0.96600002
-0.40178999 0.39507952 0.96600002
-0.40011239 0.39507952 0.96600002
-0.39843476 0.39507952 0.96600002
-0.39552498 0.39385256 0.96300006
-0.39630648 0.39630648 0.96900004
-0.39462364 0.39630648 0.96900004
-0.39172429 0.39507952 0.96600002
-0.39004666 0.39507952 0.96600002
-0.38836905 0.39507952 0.96600002
-0.38669142 0.39507952 0.96600002
-0.36708793 0.38853577 0.95000005
-0.34414223 0.39058068 0.95500004
-0.3424837 0.39058068 0.95500004
-0.34082517 0.39058068 0.95500004
-0.33916667 0.39058068 0.95500004
-0.33750814 0.39058068 0.95500004
-0.33690467 0.39180765 0.95800006
-0.33524093 0.39180765 0.95800006
-0.33357722 0.39180765 0.95800006
-0.33191347 0.39180765 0.95800006
-0.33024976 0.39180765 0.95800006
-0.32858601 0.39180765 0.95800006
-0.3269223 0.39180765 0.95800006
-0.32525858 0.39180765 0.95800006
0.21118736 0.27401996 0.67000002
0.21235092 0.27401996 0.67000002
0.21319582 0.27361098 0.66900003
0.21435764 0.27361098 0.66900003
0.21487516 0.27279299 0.66700006
0.21538575 0.27197504 0.66500002
0.21556376 0.27074808 0.66200006
0.2160587 0.26993009 0.66000003
0.21654671 0.26911214 0.65800005
0.21868195 0.2703391 0.66100001
0.21949731 0.26993009 0.66000003
0.22064351 0.26993009 0.66000003
0.22111762 0.26911214 0.65800005
0.2229359 0.26993009 0.66000003
0.22408211 0.26993009 0.66000003
0.22522831 0.26993009 0.66000003
0.22637451 0.26993009 0.66000003
0.22683126 0.26911214 0.65800005
0.22762752 0.26870316 0.65700001
0.2284203 0.26829416 0.65600002
0.22920962 0.26788518 0.65500003
0.22964378 0.26706722 0.65300006
0.23077783 0.26706722 0.65300006
0.23191187 0.26706722 0.65300006
0.23268902 0.26665822 0.65200001
0.23346271 0.26624924 0.65100002
0.23459329 0.26624924 0.65100002
0.23536175 0.26584026 0.65000004
0.23649059 0.26584026 0.65000004
0.23761943 0.26584026 0.65000004
0.23801364 0.26502228 0.648
0.23913901 0.26502228 0.648
0.24026437 0.26502228 0.648
0.24138972 0.26502228 0.648
-0.4080863 0.3979893 0.96900004
-0.40640345 0.3979893 0.96900004
-0.40346763 0.39675716 0.96600002
-0.40178999 0.39675716 0.96600002
-0.40011239 0.39675716 0.96600002
-0.39967215 0.3979893 0.96900004
-0.3979893 0.3979893 0.96900004
-0.39753345 0.39922148 0.97200006
-0.39788163 0.40127507 0.97700006
-0.39415735 0.39922148 0.97200006
-0.39448819 0.40127507 0.97700006
-0.39078128 0.39922148 0.97200006
-0.38909322 0.39922148 0.97200006
-0.36708793 0.39018559 0.95000005
-0.34082517 0.39223921 0.95500004
-0.33916667 0.39223921 0.95500004
-0.33750814 0.39223921 0.95500004
-0.33584964 0.39223921 0.95500004
-0.33419111 0.39223921 0.95500004
-0.33357722 0.39347136 0.95800006
-0.33087409 0.39223921 0.95500004
-0.33024976 0.39347136 0.95800006
-0.32858601 0.39347136 0.95800006
-0.3269223 0.39347136 0.95800006
-0.32525858 0.39347136 0.95800006
0.21087216 0.27477279 0.66900003
0.21203399 0.27477279 0.66900003
0.21319582 0.27477279 0.66900003
0.2137168 0.27395135 0.66700006
0.21455301 0.27354065 0.66600001
0.21538575 0.27312991 0.66500002
0.21556376 0.27189776 0.66200006
0.21638606 0.27148703 0.66100001
0.21720491 0.27107632 0.66000003
0.21868195 0.27148703 0.66100001
0.21949731 0.27107632 0.66000003
0.22064351 0.27107632 0.66000003
0.22111762 0.27025485 0.65800005
0.2229359 0.27107632 0.66000003
0.22408211 0.27107632 0.66000003
0.22522831 0.27107632 0.66000003
0.22568852 0.27025485 0.65800005
0.22683126 0.27025485 0.65800005
0.22762752 0.26984414 0.65700001
0.2284203 0.26943341 0.65600002
0.22920962 0.2690227 0.65500003
0.22964378 0.26820126 0.65300006
0.23077783 0.26820126 0.65300006
0.23191187 0.26820126 0.65300006
0.23268902 0.26779053 0.65200001
0.23346271 0.26737982 0.65100002
0.23459329 0.26737982 0.65100002
0.23572385 0.26737982 0.65100002
0.23685442 0.26737982 0.65100002
0.23761943 0.26696908 0.65000004
0.23801364 0.26614764 0.648
0.23913901 0.26614764 0.648
0.24100593 0.26696908 0.65000004
0.24138972 0.26614764 0.648
-0.40766168 0.40090951 0.97200006
-0.40472063 0.39967215 0.96900004
-0.40303779 0.39967215 0.96900004
-0.40173444 0.40173444 0.97400004
-0.40127507 0.4029718 0.97700006
-0.39957836 0.4029718 0.97700006
-0.39910337 0.40420917 0.98000002
-0.39618492 0.4029718 0.97700006
-0.39691085 0.40544656 0.98300004
-0.39158535 0.40173444 0.97400004
-0.38348901 0.3951351 0.95800006
-0.33845636 0.39307281 0.95300007
-0.33680132 0.39307281 0.95300007
-0.33514628 0.39307281 0.95300007
-0.33349124 0.39307281 0.95300007
-0.33253261 0.39389771 0.95500004
-0.33087409 0.39389771 0.95500004
-0.32921556 0.39389771 0.95500004
-0.32755706 0.39389771 0.95500004
-0.3269223 0.3951351 0.95800006
-0.32525858 0.3951351 0.95800006
0.21087216 0.27593464 0.66900003
0.21140009 0.27510971 0.66700006
0.21255845 0.27510971 0.66700006
0.2137168 0.27510971 0.66700006
0.21455301 0.27469724 0.66600001
0.21538575 0.27428481 0.66500002
0.21588938 0.27345988 0.66300005
0.21671343 0.27304742 0.66200006
0.21753401 0.27263495 0.66100001
0.21868195 0.27263495 0.66100001
0.21949731 0.27222252 0.66000003
0.22064351 0.27222252 0.66000003
0.22111762 0.27139759 0.65800005
0.22226034 0.27139759 0.65800005
0.22340307 0.27139759 0.65800005
0.22454579 0.27139759 0.65800005
0.22568852 0.27139759 0.65800005
0.22683126 0.27139759 0.65800005
0.22762752 0.27098513 0.65700001
0.2284203 0.27057266 0.65600002
0.22955956 0.27057266 0.65600002
0.23034713 0.27016023 0.65500003
0.23077783 0.2693353 0.65300006
0.23191187 0.2693353 0.65300006
0.23268902 0.26892284 0.65200001
0.23382133 0.26892284 0.65200001
0.23459329 0.26851037 0.65100002
0.23572385 0.26851037 0.65100002
0.23685442 0.26851037 0.65100002
0.23798499 0.26851037 0.65100002
0.23911557 0.26851037 0.65100002
0.24024613 0.26851037 0.65100002
0.24174748 0.26892284 0.65200001
0.24287979 0.26892284 0.65200001
-0.40377501 0.414195 1
-0.39721388 0.40922466 0.98800004
-0.3822881 0.39555624 0.95500004
-0.37983245 0.39472786 0.95300007
-0.37897107 0.39555624 0.95500004
-0.37731254 0.39555624 0.95500004
-0.37486732 0.39472786 0.95300007
-0.36890447 0.39017171 0.94200003
-0.36648878 0.38934332 0.94000006
-0.33739093 0.39348525 0.95000005
-0.3357411 0.39348525 0.95000005
-0.33514628 0.39472786 0.95300007
-0.33244142 0.39348525 0.95000005
-0.33183619 0.39472786 0.95300007
-0.33018115 0.39472786 0.95300007
-0.32852611 0.39472786 0.95300007
-0.32687107 0.39472786 0.95300007
0.21087216 0.27709645 0.66900003
0.21140009 0.27626806 0.66700006
0.21255845 0.27626806 0.66700006
0.2137168 0.27626806 0.66700006
0.21487516 0.27626806 0.66700006
0.21538575 0.27543968 0.66500002
0.21588938 0.27461129 0.66300005
0.21704079 0.27461129 0.66300005
0.2181922 0.27461129 0.66300005
0.21901278 0.2741971 0.66200006
0.21982987 0.27378291 0.66100001
0.22064351 0.27336872 0.66000003
0.22111762 0.27254033 0.65800005
0.22226034 0.27254033 0.65800005
0.22340307 0.27254033 0.65800005
0.22454579 0.27254033 0.65800005
0.22568852 0.27254033 0.65800005
0.22683126 0.27254033 0.65800005
0.22762752 0.27212611 0.65700001
0.2287685 0.27212611 0.65700001
0.22955956 0.27171192 0.65600002
0.23034713 0.27129772 0.65500003
0.23148465 0.27129772 0.65500003
0.23191187 0.27046934 0.65300006
0.23268902 0.27005515 0.65200001
0.23346271 0.26964095 0.65100002
0.23459329 0.26964095 0.65100002
0.23572385 0.26964095 0.65100002
0.23685442 0.26964095 0.65100002
0.23798499 0.26964095 0.65100002
0.23911557 0.26964095 0.65100002
0.24024613 0.26964095 0.65100002
0.24174748 0.27005515 0.65200001
0.24287979 0.27005515 0.65200001
-0.39962611 0.41343608 0.99400002
-0.38148749 0.3963829 0.95300007
-0.3806296 0.39721474 0.95500004
-0.3781774 0.3963829 0.95300007
-0.37533709 0.3951351 0.95000005
-0.37290055 0.39430323 0.94800007
-0.37007934 0.39305544 0.94500005
-0.36726853 0.39180765 0.94200003
-0.36563259 0.39180765 0.94200003
-0.33244142 0.3951351 0.95000005
-0.33183619 0.3963829 0.95300007
-0.32914177 0.3951351 0.95000005
-0.32749194 0.3951351 0.95000005
0.21087216 0.27825829 0.66900003
0.21140009 0.27742642 0.66700006
0.21255845 0.27742642 0.66700006
0.2137168 0.27742642 0.66700006
0.21455301 0.2770105 0.66600001
0.21570964 0.2770105 0.66600001
0.21588938 0.27576271 0.66300005
0.21704079 0.27576271 0.66300005
0.2181922 0.27576271 0.66300005
0.21901278 0.27534679 0.66200006
0.21982987 0.27493083 0.66100001
0.22097781 0.27493083 0.66100001
0.2217897 0.27451491 0.66000003
0.2229359 0.27451491 0.66000003
0.22340307 0.27368304 0.65800005
0.22454579 0.27368304 0.65800005
0.22568852 0.27368304 0.65800005
0.22648652 0.27326712 0.65700001
0.22762752 0.27326712 0.65700001
0.2284203 0.27285117 0.65600002
0.22955956 0.27285117 0.65600002
0.23034713 0.27243525 0.65500003
0.23148465 0.27243525 0.65500003
0.23155671 0.27118745 0.65200001
0.23268902 0.27118745 0.65200001
0.23346271 0.27077153 0.65100002
0.23459329 0.27077153 0.65100002
0.23572385 0.27077153 0.65100002
0.23685442 0.27077153 0.65100002
0.23798499 0.27077153 0.65100002
0.23911557 0.27077153 0.65100002
0.24061517 0.27118745 0.65200001
0.24174748 0.27118745 0.65200001
0.24287979 0.27118745 0.65200001
-0.3822881 0.39887327 0.95500004
-0.3806296 0.39887327 0.95500004
-0.3781774 0.39803794 0.95300007
-0.37454692 0.3959496 0.94800007
-0.37290055 0.3959496 0.94800007
-0.37007934 0.39469659 0.94500005
-0.36843818 0.39469659 0.94500005
-0.36563259 0.39344358 0.94200003
-0.33183619 0.39803794 0.95300007
-0.32914177 0.39678493 0.95000005
-0.32749194 0.39678493 0.95000005
0.20854849 0.27942014 0.66900003
0.20908338 0.27858478 0.66700006
0.21087216 0.27942014 0.66900003
0.21140009 0.27858478 0.66700006
0.21255845 0.27858478 0.66700006
0.2137168 0.27858478 0.66700006
0.21455301 0.27816713 0.66600001
0.21538575 0.27774945 0.66500002
0.21588938 0.27691412 0.66300005
0.21704079 0.27691412 0.66300005
0.2178631 0.27649644 0.66200006
0.21901278 0.27649644 0.66200006
0.21982987 0.27607879 0.66100001
0.22097781 0.27607879 0.66100001
0.2217897 0.27566111 0.66000003
0.22226034 0.27482578 0.65800005
0.22340307 0.27482578 0.65800005
0.22420454 0.2744081 0.65700001
0.22534554 0.2744081 0.65700001
0.22648652 0.2744081 0.65700001
0.22728105 0.27399042 0.65600002
0.2284203 0.27399042 0.65600002
0.22955956 0.27399042 0.65600002
0.22964378 0.27273744 0.65300006
0.23077783 0.27273744 0.65300006
0.23155671 0.27231976 0.65200001
0.23233214 0.27190208 0.65100002
0.23346271 0.27190208 0.65100002
0.23459329 0.27190208 0.65100002
0.23572385 0.27190208 0.65100002
0.23685442 0.27190208 0.65100002
0.23798499 0.27190208 0.65100002
0.23911557 0.27190208 0.65100002
0.24061517 0.27231976 0.65200001
0.24174748 0.27231976 0.65200001
0.24325231 0.27273744 0.65300006
-0.3806296 0.4005318 0.95500004
-0.3781774 0.39969298 0.95300007
-0.37454692 0.39759594 0.94800007
-0.37172049 0.39633775 0.94500005
-0.37007934 0.39633775 0.94500005
-0.33244142 0.39843476 0.95000005
-0.33079159 0.39843476 0.95000005
-0.32914177 0.39843476 0.95000005
-0.32749194 0.39843476 0.95000005
-0.32584208 0.39843476 0.95000005
0.20908338 0.27974313 0.66700006
0.21024173 0.27974313 0.66700006
0.21140009 0.27974313 0.66700006
0.21223977 0.27932373 0.66600001
0.2133964 0.27932373 0.66600001
0.21423087 0.27890432 0.66500002
